ply
format ascii 1.0
element vertex 811
property float x 
property float y
property float z
property float nx 
property float ny
property float nz
end_header
-0.252715 0.183061 0.142778 -0.961959 0.124181 -0.243341 
-0.247223 0.190208 0.145792 -0.956903 0.161968 -0.241043 
-0.241687 0.197382 0.148835 -0.953448 0.188353 -0.235500 
-0.235148 0.204680 0.152422 -0.942009 0.241526 -0.232993 
-0.227197 0.212137 0.156784 -0.924782 0.302682 -0.230572 
-0.218473 0.219701 0.161573 -0.911566 0.343317 -0.226230 
-0.207345 0.227546 0.167676 -0.881209 0.416089 -0.224365 
-0.196078 0.235453 0.173856 -0.864139 0.454950 -0.215138 
-0.178825 0.244035 0.183319 -0.880325 0.452799 -0.141429 
-0.164637 0.252360 0.191105 -0.901448 0.428343 -0.062545 
-0.152573 0.260500 0.197717 -0.915331 0.402115 0.021728 
-0.140969 0.268640 0.204083 -0.910735 0.393881 0.124179 
-0.130508 0.276697 0.209826 -0.902649 0.360886 0.234490 
0.106268 0.310999 0.339628 -0.658685 -0.675488 -0.331437 
-0.089809 0.295259 0.232144 -0.829352 -0.143851 0.539891 
-0.086148 0.302666 0.234155 -0.807992 -0.225387 0.544380 
-0.085231 0.309747 0.234660 -0.785643 -0.299305 0.541462 
-0.085376 0.316707 0.234584 -0.732982 -0.444863 0.514620 
-0.086061 0.323592 0.234220 -0.694333 -0.493720 0.523586 
-0.087379 0.330399 0.233498 -0.656954 -0.533277 0.532943 
-0.089314 0.337122 0.232441 -0.590851 -0.615634 0.521431 
-0.091734 0.343770 0.231117 -0.538616 -0.661801 0.521452 
-0.095058 0.350289 0.229307 -0.480377 -0.702070 0.525676 
-0.099138 0.356686 0.227066 -0.406909 -0.753424 0.516506 
-0.103801 0.362992 0.224519 -0.328622 -0.793679 0.511938 
-0.110264 0.369032 0.220977 -0.251331 -0.817944 0.517495 
-0.220774 0.360327 0.160407 0.237446 -0.657142 0.715391 
-0.240336 0.364227 0.149678 -0.016279 -0.708682 0.705341 
-0.248532 0.369706 0.145194 -0.174292 -0.697629 0.694937 
-0.256097 0.375239 0.141051 -0.256207 -0.685922 0.681078 
-0.260712 0.381189 0.138527 -0.359793 -0.659069 0.660437 
-0.264116 0.387299 0.136658 -0.407953 -0.639724 0.651406 
-0.267234 0.393449 0.134959 -0.462188 -0.619859 0.634158 
-0.269777 0.399666 0.133564 -0.524051 -0.580214 0.623476 
-0.272043 0.405921 0.132325 -0.572574 -0.550304 0.607720 
-0.273814 0.412244 0.131359 -0.611783 -0.526034 0.590770 
-0.275890 0.418514 0.130231 -0.636433 -0.505390 0.582697 
-0.278302 0.424724 0.128911 -0.665882 -0.484466 0.567357 
-0.279686 0.431086 0.128154 -0.690746 -0.462512 0.555834 
-0.280290 0.437575 0.127831 -0.731578 -0.421550 0.535808 
-0.276743 0.444765 0.129779 -0.743862 -0.384554 0.546616 
0.076516 -0.610853 0.314428 -0.059352 -0.959931 0.273879 
0.060938 -0.601534 0.305933 -0.085699 -0.981709 0.170016 
0.049294 -0.592778 0.299583 -0.119442 -0.982504 0.142903 
0.038947 -0.584233 0.293940 -0.148360 -0.985406 0.083454 
0.029052 -0.575792 0.288539 -0.187968 -0.982176 0.001011 
0.020398 -0.567532 0.283818 -0.216868 -0.975283 -0.042330 
0.013107 -0.559475 0.279849 -0.246112 -0.958072 -0.146725 
0.007978 -0.551710 0.277051 -0.282927 -0.937471 -0.202730 
0.002676 -0.543940 0.274159 -0.301372 -0.915319 -0.267144 
-0.001613 -0.536304 0.271824 -0.316473 -0.881405 -0.350674 
-0.004673 -0.528832 0.270162 -0.316580 -0.829138 -0.460770 
-0.007573 -0.521384 0.268581 -0.308233 -0.792111 -0.526836 
-0.010753 -0.513920 0.266852 -0.287065 -0.741740 -0.606149 
-0.013741 -0.506487 0.265228 -0.288864 -0.732794 -0.616093 
-0.016365 -0.499098 0.263793 -0.276826 -0.718402 -0.638174 
-0.018616 -0.491771 0.262570 -0.261762 -0.700260 -0.664166 
-0.017601 -0.484773 0.263132 -0.252309 -0.689165 -0.679259 
-0.015132 -0.477917 0.264482 -0.234190 -0.666687 -0.707590 
-0.015398 -0.470791 0.264345 -0.227835 -0.647844 -0.726905 
-0.209885 -0.445151 0.158195 0.327021 -0.826227 -0.458701 
-0.227421 -0.436792 0.148626 0.030351 -0.891316 -0.452369 
-0.236852 -0.429243 0.143483 -0.023530 -0.868748 -0.494696 
-0.242826 -0.422046 0.140230 -0.075756 -0.812170 -0.578482 
-0.247060 -0.415016 0.137922 -0.151297 -0.738762 -0.656765 
-0.250070 -0.408111 0.136277 -0.154958 -0.705416 -0.691648 
-0.252057 -0.401304 0.135204 -0.177773 -0.640214 -0.747344 
-0.253330 -0.394564 0.134513 -0.185202 -0.606402 -0.773291 
-0.254018 -0.387877 0.134138 -0.171727 -0.536554 -0.826209 
-0.253720 -0.381265 0.134308 -0.176840 -0.487472 -0.855044 
-0.253060 -0.374683 0.134666 -0.136463 -0.387468 -0.911727 
-0.251758 -0.368145 0.135381 -0.144837 -0.308718 -0.940062 
-0.249628 -0.361660 0.136551 -0.149199 -0.291719 -0.944797 
-0.245088 -0.355332 0.139037 -0.094219 -0.302113 -0.948605 
-0.238430 -0.349130 0.142675 -0.082575 -0.337335 -0.937756 
-0.226335 -0.343263 0.149278 -0.057116 -0.411353 -0.909684 
-0.227960 -0.336471 0.148393 -0.024071 -0.476035 -0.879097 
-0.230189 -0.329649 0.147180 -0.015640 -0.532967 -0.845991 
-0.236410 -0.322597 0.143794 -0.011571 -0.588323 -0.808544 
-0.243466 -0.315521 0.139948 -0.013858 -0.635277 -0.772160 
-0.252217 -0.308373 0.135170 -0.029524 -0.717620 -0.695809 
-0.262950 -0.301158 0.129318 -0.037619 -0.791482 -0.610035 
-0.274928 -0.293920 0.122782 -0.035978 -0.768704 -0.638593 
-0.325135 -0.284818 0.095387 -0.039400 -0.624638 -0.779920 
-0.336097 -0.277799 0.089402 -0.074278 -0.654248 -0.752623 
-0.343929 -0.270967 0.085134 -0.109381 -0.680174 -0.724844 
-0.351200 -0.264195 0.081164 -0.151657 -0.696812 -0.701038 
-0.356705 -0.257519 0.078171 -0.228887 -0.712985 -0.662769 
-0.361945 -0.250872 0.075309 -0.311374 -0.715491 -0.625397 
-0.365796 -0.244310 0.073218 -0.377700 -0.708823 -0.595747 
-0.368606 -0.237790 0.071681 -0.426296 -0.695990 -0.577816 
-0.370437 -0.231324 0.070684 -0.483490 -0.660351 -0.574608 
-0.372004 -0.224865 0.069838 -0.544155 -0.637731 -0.545154 
-0.373207 -0.218426 0.069188 -0.589680 -0.605146 -0.534862 
-0.373763 -0.212011 0.068889 -0.632099 -0.561086 -0.534447 
-0.374046 -0.205611 0.068734 -0.661991 -0.523441 -0.536449 
-0.374092 -0.199211 0.068715 -0.702741 -0.464323 -0.539036 
-0.373512 -0.192825 0.069034 -0.721737 -0.417730 -0.551903 
-0.372499 -0.186446 0.069596 -0.751624 -0.345477 -0.561879 
-0.370260 -0.180090 0.070822 -0.755549 -0.281623 -0.591467 
-0.367293 -0.173732 0.072444 -0.776361 -0.203812 -0.596427 
-0.363918 -0.167375 0.074287 -0.777602 -0.118313 -0.617526 
-0.359325 -0.161016 0.076799 -0.777370 -0.035948 -0.628015 
-0.353046 -0.154656 0.080231 -0.758468 0.053753 -0.649491 
-0.341886 -0.148306 0.086324 -0.668217 0.246709 -0.701870 
-0.248001 -0.142463 0.137582 -0.552075 -0.659171 -0.510595 
-0.247407 -0.135821 0.137909 -0.507236 -0.739711 -0.442198 
-0.249053 -0.129173 0.137014 -0.451152 -0.815204 -0.363187 
-0.251596 -0.122526 0.135635 -0.418148 -0.855842 -0.304446 
-0.254873 -0.115894 0.133848 -0.410443 -0.872258 -0.265901 
-0.258461 -0.109270 0.131888 -0.411422 -0.878720 -0.242043 
-0.262113 -0.102661 0.129905 -0.430868 -0.876119 -0.216260 
-0.265836 -0.096073 0.127878 -0.452017 -0.870242 -0.195859 
-0.269211 -0.089494 0.126034 -0.471559 -0.862413 -0.184055 
-0.272492 -0.082923 0.124254 -0.485105 -0.859056 -0.163395 
-0.275741 -0.076366 0.122480 -0.509248 -0.846271 -0.156506 
-0.278866 -0.069825 0.120778 -0.535596 -0.828851 -0.161695 
-0.281798 -0.063291 0.119180 -0.561077 -0.810652 -0.167440 
-0.284427 -0.056758 0.117751 -0.582887 -0.793074 -0.176852 
-0.285927 -0.050213 0.116938 -0.598469 -0.779178 -0.186324 
-0.287007 -0.043670 0.116351 -0.609912 -0.768132 -0.194887 
-0.287260 -0.037103 0.116221 -0.617549 -0.761352 -0.197427 
-0.287670 -0.030545 0.116002 -0.623239 -0.756669 -0.197547 
-0.288241 -0.023995 0.115695 -0.629233 -0.752363 -0.194980 
-0.289578 -0.017467 0.114962 -0.636850 -0.747993 -0.186891 
-0.291277 -0.010961 0.114040 -0.646972 -0.742465 -0.173712 
-0.293010 -0.004457 0.113102 -0.656192 -0.737196 -0.161100 
-0.294985 0.002026 0.112025 -0.670229 -0.727145 -0.148499 
-0.297082 0.008500 0.110887 -0.688633 -0.711770 -0.138449 
-0.299086 0.014966 0.109796 -0.709933 -0.691236 -0.134864 
-0.300839 0.021433 0.108847 -0.735705 -0.664369 -0.131729 
-0.302443 0.027908 0.107973 -0.757854 -0.639955 -0.126946 
-0.303445 0.034400 0.107432 -0.782365 -0.608452 -0.133011 
-0.304133 0.040905 0.107058 -0.808069 -0.572006 -0.140837 
-0.304352 0.047432 0.106944 -0.831380 -0.533001 -0.157213 
-0.303966 0.053985 0.107159 -0.853063 -0.491119 -0.176313 
-0.303128 0.060568 0.107616 -0.871028 -0.454749 -0.185776 
-0.302093 0.067165 0.108187 -0.887817 -0.410728 -0.207570 
-0.300916 0.073770 0.108832 -0.901814 -0.365561 -0.230428 
-0.299584 0.080399 0.109569 -0.913075 -0.323585 -0.248166 
-0.297725 0.087057 0.110588 -0.921697 -0.285243 -0.262892 
-0.295616 0.093740 0.111738 -0.926540 -0.257281 -0.274464 
-0.293022 0.100467 0.113158 -0.933676 -0.230733 -0.273882 
-0.290220 0.107217 0.114691 -0.940077 -0.205844 -0.271815 
-0.287056 0.114006 0.116429 -0.944834 -0.187368 -0.268666 
-0.283690 0.120816 0.118269 -0.951056 -0.164894 -0.261348 
-0.280611 0.127620 0.119957 -0.956418 -0.144253 -0.253879 
-0.277880 0.134416 0.121445 -0.961841 -0.119498 -0.246135 
-0.275324 0.141204 0.122845 -0.966195 -0.091617 -0.240985 
-0.271975 0.148060 0.124684 -0.968643 -0.060553 -0.240967 
-0.268230 0.154970 0.126731 -0.969748 -0.026980 -0.242613 
-0.263722 0.161957 0.129193 -0.969037 0.011505 -0.246649 
-0.258537 0.169018 0.132026 -0.966910 0.052282 -0.249705 
-0.253380 0.176103 0.134845 -0.963022 0.085024 -0.255658 
-0.248146 0.183210 0.137712 -0.957974 0.120845 -0.260161 
-0.242741 0.190355 0.140667 -0.952664 0.154360 -0.261927 
-0.237159 0.197531 0.143715 -0.948868 0.186522 -0.254676 
-0.231154 0.204775 0.147001 -0.939883 0.232090 -0.250511 
-0.223607 0.212202 0.151126 -0.922959 0.291397 -0.251463 
-0.214997 0.219758 0.155826 -0.909857 0.335552 -0.244062 
-0.204120 0.227572 0.161768 -0.885307 0.398224 -0.240107 
-0.192029 0.235563 0.168378 -0.876020 0.436630 -0.204803 
-0.176692 0.243947 0.176755 -0.896499 0.429040 -0.110532 
-0.161442 0.252378 0.185089 -0.916530 0.399897 0.007472 
-0.150196 0.260427 0.191225 -0.924445 0.368006 0.099869 
-0.138981 0.268522 0.197353 -0.904141 0.348744 0.246792 
-0.129352 0.276480 0.202615 -0.879789 0.353863 0.317414 
-0.116777 0.284817 0.209490 -0.712243 0.400131 0.576719 
-0.104505 0.293170 0.216191 -0.698027 0.248624 0.671524 
-0.089540 0.301887 0.224366 -0.759501 -0.067661 0.646978 
-0.086938 0.309166 0.225789 -0.746307 -0.211606 0.631070 
-0.086434 0.316194 0.226070 -0.731257 -0.302736 0.611241 
-0.087010 0.323085 0.225761 -0.686447 -0.455408 0.566917 
-0.088443 0.329870 0.224982 -0.627915 -0.497325 0.598658 
-0.089928 0.336639 0.224175 -0.595964 -0.528005 0.605012 
-0.091854 0.343348 0.223131 -0.535108 -0.627100 0.566045 
-0.095269 0.349844 0.221267 -0.447192 -0.626435 0.638435 
-0.099358 0.356241 0.219040 -0.325665 -0.644029 0.692221 
-0.106093 0.362258 0.215371 -0.222169 -0.664081 0.713890 
-0.192064 0.357201 0.168434 0.340810 -0.661158 0.668371 
-0.231740 0.358356 0.146775 0.107403 -0.736983 0.667324 
-0.243288 0.363378 0.140478 -0.070694 -0.756209 0.650500 
-0.252106 0.368759 0.135667 -0.196419 -0.737423 0.646240 
-0.257832 0.374551 0.132544 -0.310227 -0.714068 0.627589 
-0.261457 0.380639 0.130575 -0.376471 -0.693867 0.613856 
-0.264594 0.386787 0.128865 -0.430352 -0.667558 0.607589 
-0.267375 0.392973 0.127352 -0.496259 -0.641368 0.585130 
-0.269853 0.399206 0.125997 -0.544028 -0.612377 0.573611 
-0.272090 0.405453 0.124782 -0.600544 -0.576297 0.554283 
-0.273948 0.411761 0.123772 -0.629199 -0.558254 0.540796 
-0.276177 0.418002 0.122559 -0.658709 -0.540079 0.523850 
-0.278824 0.424158 0.121121 -0.688723 -0.523555 0.501548 
-0.280084 0.430535 0.120435 -0.722682 -0.495734 0.481642 
-0.280660 0.437025 0.120125 -0.755400 -0.448801 0.477439 
-0.276246 0.444359 0.122539 -0.778141 -0.402430 0.482230 
0.093038 -0.619923 0.315115 -0.030192 -0.967561 0.250826 
0.075504 -0.610287 0.305592 -0.074525 -0.972705 0.219754 
0.062969 -0.601372 0.298778 -0.104664 -0.989365 0.101012 
0.052061 -0.592715 0.292855 -0.125008 -0.990295 0.060740 
0.042340 -0.584252 0.287576 -0.167220 -0.984448 0.053866 
0.033962 -0.575998 0.283028 -0.202337 -0.978749 -0.033350 
0.026302 -0.567859 0.278872 -0.229333 -0.963675 -0.136887 
0.019587 -0.559871 0.275223 -0.255817 -0.950403 -0.176900 
0.015042 -0.552165 0.272759 -0.289710 -0.912049 -0.290235 
0.011497 -0.544596 0.270831 -0.311215 -0.874619 -0.371734 
0.007330 -0.536966 0.268573 -0.336560 -0.816170 -0.469676 
0.004993 -0.529556 0.267308 -0.323009 -0.771083 -0.548723 
0.002934 -0.522190 0.266190 -0.319399 -0.711800 -0.625561 
0.000761 -0.514824 0.265014 -0.303666 -0.684894 -0.662350 
0.000061 -0.507616 0.264645 -0.278810 -0.672373 -0.685697 
0.001797 -0.500670 0.265592 -0.228592 -0.666372 -0.709715 
0.007218 -0.494099 0.268543 -0.221988 -0.648821 -0.727842 
0.006422 -0.486875 0.268116 -0.203982 -0.644321 -0.737050 
0.003305 -0.479427 0.266427 -0.224476 -0.632023 -0.741727 
-0.003258 -0.471658 0.262862 -0.231953 -0.617896 -0.751268 
-0.011747 -0.463730 0.258249 -0.232496 -0.615200 -0.753311 
-0.212492 -0.437905 0.149139 0.223954 -0.747539 -0.625324 
-0.224723 -0.430079 0.142495 0.091160 -0.761277 -0.641988 
-0.231217 -0.422807 0.138964 -0.022891 -0.743435 -0.668416 
-0.236079 -0.415716 0.136325 -0.091308 -0.665373 -0.740907 
-0.239965 -0.408720 0.134217 -0.135186 -0.639843 -0.756522 
-0.241546 -0.401929 0.133364 -0.144324 -0.577927 -0.803225 
-0.242576 -0.395197 0.132810 -0.149827 -0.522640 -0.839284 
-0.242815 -0.388524 0.132686 -0.150765 -0.441871 -0.884320 
-0.241777 -0.381957 0.133252 -0.148124 -0.370915 -0.916778 
-0.240201 -0.375427 0.134110 -0.159024 -0.318994 -0.934321 
-0.237496 -0.368972 0.135585 -0.148539 -0.270885 -0.951081 
-0.232612 -0.362657 0.138243 -0.119877 -0.294249 -0.948181 
-0.211060 -0.357486 0.149962 -0.104513 -0.329667 -0.938294 
-0.212681 -0.350664 0.149088 -0.094525 -0.402177 -0.910670 
-0.213281 -0.343917 0.148767 -0.066470 -0.456181 -0.887401 
-0.214182 -0.337154 0.148279 -0.045868 -0.510893 -0.858421 
-0.216662 -0.330295 0.146941 -0.035263 -0.584405 -0.810696 
-0.223321 -0.323197 0.143319 -0.013388 -0.648757 -0.760878 
-0.230921 -0.316069 0.139194 -0.034667 -0.694228 -0.718920 
-0.238314 -0.308980 0.135179 -0.028042 -0.732909 -0.679750 
-0.246346 -0.301891 0.130819 -0.033006 -0.790716 -0.611293 
-0.253857 -0.294853 0.126737 -0.043261 -0.788249 -0.613835 
-0.261166 -0.287863 0.122772 -0.055282 -0.779892 -0.623469 
-0.269455 -0.280849 0.118271 -0.064649 -0.770231 -0.634481 
-0.312011 -0.272300 0.095141 0.043711 -0.616720 -0.785968 
-0.331718 -0.264917 0.084428 -0.041644 -0.679122 -0.732844 
-0.341199 -0.258041 0.079284 -0.095513 -0.702280 -0.705465 
-0.349467 -0.251255 0.074790 -0.163989 -0.712904 -0.681817 
-0.354839 -0.244608 0.071870 -0.254046 -0.703329 -0.663920 
-0.358972 -0.238031 0.069631 -0.357534 -0.691399 -0.627805 
-0.362059 -0.231504 0.067955 -0.392786 -0.675675 -0.623846 
-0.364643 -0.225007 0.066557 -0.455288 -0.641428 -0.617481 
-0.366430 -0.218548 0.065591 -0.514927 -0.603184 -0.609114 
-0.366375 -0.212140 0.065621 -0.561755 -0.566627 -0.602799 
-0.366303 -0.205732 0.065670 -0.609243 -0.503694 -0.612467 
-0.366213 -0.199331 0.065719 -0.635257 -0.467325 -0.614863 
-0.365517 -0.192938 0.066105 -0.669677 -0.395106 -0.628828 
-0.364445 -0.186551 0.066687 -0.685713 -0.337100 -0.645106 
-0.362460 -0.180180 0.067776 -0.701773 -0.269508 -0.659455 
-0.359621 -0.173807 0.069320 -0.716082 -0.190569 -0.671499 
-0.355285 -0.167448 0.071686 -0.711005 -0.101951 -0.695757 
-0.350112 -0.161091 0.074496 -0.713232 -0.030925 -0.700246 
-0.339436 -0.154764 0.080303 -0.645749 0.149558 -0.748760 
-0.239089 -0.149158 0.134862 -0.585684 -0.498961 -0.638758 
-0.237216 -0.142515 0.135886 -0.553573 -0.617292 -0.559024 
-0.237999 -0.135851 0.135466 -0.506596 -0.732903 -0.454110 
-0.240722 -0.129179 0.133989 -0.448097 -0.813687 -0.370303 
-0.244533 -0.122525 0.131919 -0.427117 -0.844964 -0.321882 
-0.248411 -0.115879 0.129814 -0.392282 -0.879516 -0.269385 
-0.252337 -0.109255 0.127686 -0.388637 -0.888087 -0.245484 
-0.256368 -0.102647 0.125497 -0.401869 -0.887243 -0.226498 
-0.260386 -0.096053 0.123313 -0.422932 -0.882199 -0.207013 
-0.263987 -0.089467 0.121364 -0.448317 -0.872579 -0.193956 
-0.267480 -0.082894 0.119468 -0.465706 -0.866357 -0.180405 
-0.270891 -0.076338 0.117615 -0.495453 -0.850311 -0.177479 
-0.273769 -0.069790 0.116061 -0.526468 -0.829767 -0.185255 
-0.276584 -0.063247 0.114531 -0.552406 -0.811280 -0.191505 
-0.279236 -0.056713 0.113099 -0.575963 -0.792733 -0.199607 
-0.280847 -0.050170 0.112221 -0.591884 -0.779087 -0.206633 
-0.281711 -0.043612 0.111758 -0.603219 -0.769043 -0.211429 
-0.281991 -0.037046 0.111615 -0.611097 -0.762561 -0.212278 
-0.282899 -0.030495 0.111122 -0.614208 -0.760737 -0.209829 
-0.283516 -0.023944 0.110791 -0.618408 -0.759008 -0.203666 
-0.285580 -0.017431 0.109670 -0.626180 -0.755383 -0.193117 
-0.287586 -0.010935 0.108586 -0.633015 -0.752878 -0.180186 
-0.289457 -0.004438 0.107571 -0.644853 -0.745956 -0.166476 
-0.291476 0.002053 0.106480 -0.656289 -0.737746 -0.158166 
-0.293476 0.008526 0.105398 -0.676466 -0.721372 -0.148382 
-0.295237 0.015009 0.104447 -0.700519 -0.698082 -0.148169 
-0.296782 0.021491 0.103608 -0.725728 -0.672293 -0.146093 
-0.298363 0.027966 0.102754 -0.751000 -0.641997 -0.154398 
-0.299312 0.034463 0.102242 -0.775540 -0.608828 -0.166935 
-0.299932 0.040970 0.101903 -0.800271 -0.569037 -0.189115 
-0.299958 0.047505 0.101893 -0.821319 -0.533157 -0.202924 
-0.299469 0.054072 0.102168 -0.840213 -0.494761 -0.221936 
-0.298711 0.060655 0.102585 -0.858165 -0.449400 -0.248179 
-0.297658 0.067252 0.103156 -0.873071 -0.403904 -0.273145 
-0.296563 0.073858 0.103758 -0.885147 -0.360462 -0.294250 
-0.295193 0.080487 0.104508 -0.894310 -0.324190 -0.308398 
-0.293472 0.087146 0.105448 -0.902575 -0.289357 -0.318798 
-0.291332 0.093835 0.106614 -0.909243 -0.265796 -0.320364 
-0.288855 0.100554 0.107969 -0.915298 -0.245108 -0.319614 
-0.285876 0.107313 0.109588 -0.923723 -0.225452 -0.309688 
-0.282436 0.114123 0.111464 -0.931199 -0.207668 -0.299572 
-0.279333 0.120919 0.113157 -0.940390 -0.182992 -0.286674 
-0.276237 0.127731 0.114844 -0.947909 -0.162013 -0.274266 
-0.274077 0.134481 0.116021 -0.954646 -0.135500 -0.265124 
-0.271505 0.141268 0.117421 -0.959808 -0.104359 -0.260534 
-0.268263 0.148125 0.119191 -0.962991 -0.070344 -0.260192 
-0.264192 0.155066 0.121410 -0.965477 -0.032175 -0.258495 
-0.259369 0.162073 0.124036 -0.964399 0.008060 -0.264330 
-0.254025 0.169159 0.126941 -0.961036 0.049238 -0.272001 
-0.248816 0.176244 0.129777 -0.957391 0.083867 -0.276348 
-0.243664 0.183344 0.132589 -0.953233 0.117538 -0.278446 
-0.238539 0.190466 0.135374 -0.948703 0.147223 -0.279800 
-0.232975 0.197649 0.138407 -0.944072 0.179944 -0.276312 
-0.226604 0.204932 0.141875 -0.936532 0.221917 -0.271404 
-0.219548 0.212304 0.145713 -0.920305 0.284334 -0.268689 
-0.210819 0.219876 0.150464 -0.905951 0.330923 -0.264086 
-0.200729 0.227615 0.155954 -0.887172 0.387712 -0.250213 
-0.187497 0.235726 0.163151 -0.893885 0.410335 -0.180547 
-0.174001 0.243913 0.170497 -0.916760 0.392517 -0.074042 
-0.159208 0.252291 0.178542 -0.933303 0.350532 0.077929 
-0.147617 0.260386 0.184851 -0.922672 0.331768 0.196483 
-0.140291 0.268039 0.188842 -0.899517 0.270398 0.343151 
-0.129130 0.276163 0.194909 -0.836802 0.310265 0.451108 
-0.123591 0.283680 0.197929 -0.695792 0.276772 0.662776 
-0.115414 0.291522 0.202377 -0.591727 0.290757 0.751878 
-0.106858 0.299448 0.207033 -0.595534 0.233986 0.768498 
-0.100374 0.307161 0.210560 -0.585459 0.078436 0.806899 
-0.096251 0.314600 0.212813 -0.552540 -0.074869 0.830117 
-0.096051 0.321568 0.212925 -0.525269 -0.159519 0.835850 
-0.096614 0.328436 0.212621 -0.486136 -0.199062 0.850909 
-0.097384 0.335274 0.212207 -0.434127 -0.281713 0.855670 
-0.098958 0.342006 0.211357 -0.361075 -0.379880 0.851654 
-0.104110 0.348259 0.208555 -0.264866 -0.422896 0.866606 
-0.117088 0.353425 0.201502 -0.069544 -0.353497 0.932847 
-0.148027 0.356082 0.184686 -0.027715 -0.327781 0.944347 
-0.213752 0.353769 0.148959 0.272541 -0.733765 0.622343 
-0.235277 0.357439 0.137259 0.027649 -0.796926 0.603444 
-0.246216 0.362538 0.131317 -0.099347 -0.802179 0.588763 
-0.253301 0.368154 0.127465 -0.214423 -0.783011 0.583882 
-0.258361 0.374045 0.124718 -0.334424 -0.751688 0.568443 
-0.261756 0.380155 0.122880 -0.390517 -0.731165 0.559370 
-0.264858 0.386304 0.121197 -0.463993 -0.700937 0.541663 
-0.267725 0.392476 0.119641 -0.512919 -0.675173 0.530148 
-0.270275 0.398685 0.118258 -0.574392 -0.638998 0.511621 
-0.272784 0.404888 0.116897 -0.619382 -0.609611 0.494711 
-0.274730 0.411173 0.115845 -0.650662 -0.590423 0.477536 
-0.276963 0.417397 0.114638 -0.682708 -0.563486 0.465182 
-0.278992 0.423653 0.113533 -0.712559 -0.541488 0.446151 
-0.279976 0.430075 0.113004 -0.745289 -0.513416 0.425380 
-0.280247 0.436612 0.112863 -0.762488 -0.491677 0.420554 
-0.278699 0.443451 0.113709 -0.790831 -0.453730 0.410749 
0.110839 -0.629208 0.316433 -0.055004 -0.992556 0.108658 
0.089797 -0.619040 0.305055 -0.098954 -0.987348 0.123908 
0.077170 -0.610074 0.298221 -0.082041 -0.994289 0.068260 
0.065812 -0.601317 0.292081 -0.112563 -0.988307 0.102857 
0.055953 -0.592792 0.286743 -0.154265 -0.987949 0.012578 
0.046856 -0.584412 0.281824 -0.156612 -0.987401 -0.022622 
0.039468 -0.576279 0.277831 -0.223571 -0.968232 -0.112006 
0.033200 -0.568313 0.274439 -0.250467 -0.943572 -0.216654 
0.027506 -0.560437 0.271368 -0.259635 -0.910824 -0.320921 
0.023636 -0.552799 0.269277 -0.278477 -0.881354 -0.381666 
0.020717 -0.545291 0.267703 -0.297929 -0.757779 -0.580526 
0.017987 -0.537819 0.266222 -0.286755 -0.690968 -0.663577 
0.017541 -0.530611 0.265988 -0.294407 -0.631557 -0.717259 
0.017196 -0.523417 0.265802 -0.255112 -0.606474 -0.753066 
0.020799 -0.516650 0.267761 -0.227660 -0.610041 -0.758962 
0.031891 -0.510680 0.273768 -0.144424 -0.606130 -0.782143 
0.033906 -0.503703 0.274865 -0.110825 -0.645420 -0.755746 
0.028850 -0.496000 0.272138 -0.143448 -0.654516 -0.742316 
0.022554 -0.488183 0.268732 -0.217549 -0.657362 -0.721491 
0.013703 -0.480143 0.263947 -0.237692 -0.629580 -0.739683 
0.003045 -0.471953 0.258182 -0.243941 -0.596808 -0.764405 
-0.001287 -0.464415 0.255834 -0.266043 -0.575889 -0.773030 
-0.004754 -0.456975 0.253970 -0.283070 -0.557813 -0.780203 
-0.005166 -0.449827 0.253751 -0.322076 -0.530632 -0.784027 
-0.205060 -0.424879 0.145539 0.218549 -0.555622 -0.802198 
-0.214122 -0.417366 0.140639 0.080080 -0.577351 -0.812560 
-0.215592 -0.410544 0.139850 0.000993 -0.494450 -0.869206 
-0.186267 -0.406289 0.155726 -0.219129 0.277351 0.935446 
-0.195421 -0.398785 0.150771 -0.030564 -0.282060 -0.958911 
-0.197680 -0.391872 0.149553 -0.008512 -0.271303 -0.962457 
-0.199350 -0.385012 0.148654 -0.041572 -0.255041 -0.966036 
-0.198694 -0.378333 0.149021 -0.071188 -0.267707 -0.960867 
-0.197094 -0.371718 0.149885 -0.121543 -0.322102 -0.938871 
-0.192795 -0.365291 0.152224 -0.126595 -0.369535 -0.920554 
-0.190899 -0.358677 0.153252 -0.164837 -0.443014 -0.881231 
-0.191375 -0.351900 0.152993 -0.174005 -0.486822 -0.855995 
-0.197791 -0.344734 0.149526 -0.135158 -0.545951 -0.826844 
-0.199879 -0.337867 0.148402 -0.101922 -0.584419 -0.805026 
-0.202565 -0.330977 0.146953 -0.070335 -0.629696 -0.773651 
-0.208721 -0.323887 0.143624 -0.024747 -0.669048 -0.742807 
-0.217950 -0.316640 0.138633 -0.012767 -0.691126 -0.722623 
-0.226820 -0.309454 0.133839 -0.030445 -0.753880 -0.656306 
-0.234325 -0.302371 0.129776 -0.021957 -0.775980 -0.630375 
-0.241003 -0.295365 0.126160 -0.028498 -0.781554 -0.623188 
-0.247243 -0.288409 0.122792 -0.045797 -0.776232 -0.628782 
-0.251942 -0.281545 0.120252 -0.066387 -0.767324 -0.637815 
-0.257495 -0.274665 0.117251 -0.086758 -0.757414 -0.647144 
-0.264934 -0.267727 0.113229 -0.105422 -0.747584 -0.655747 
-0.313915 -0.259068 0.086711 0.079324 -0.647155 -0.758221 
-0.329719 -0.251933 0.078160 -0.021736 -0.686068 -0.727214 
-0.338456 -0.245124 0.073439 -0.098483 -0.693837 -0.713367 
-0.345741 -0.238404 0.069496 -0.211345 -0.686119 -0.696113 
-0.350908 -0.231790 0.066706 -0.293664 -0.671594 -0.680238 
-0.354803 -0.225232 0.064601 -0.389477 -0.634103 -0.667999 
-0.357386 -0.218728 0.063203 -0.428807 -0.609374 -0.666925 
-0.358265 -0.212283 0.062733 -0.491480 -0.554369 -0.671657 
-0.358324 -0.205868 0.062708 -0.518676 -0.516472 -0.681346 
-0.358076 -0.199453 0.062844 -0.571313 -0.459040 -0.680357 
-0.357163 -0.193058 0.063337 -0.588849 -0.390740 -0.707518 
-0.355806 -0.186665 0.064080 -0.637778 -0.317422 -0.701772 
-0.353419 -0.180285 0.065378 -0.649762 -0.270084 -0.710539 
-0.350093 -0.173912 0.067180 -0.650361 -0.170354 -0.740277 
-0.343206 -0.167582 0.070917 -0.644953 -0.065576 -0.761404 
-0.331317 -0.161285 0.077356 -0.540010 0.119455 -0.833140 
-0.235865 -0.155812 0.129035 -0.602008 -0.325240 -0.729251 
-0.229781 -0.149210 0.132334 -0.583388 -0.500086 -0.639979 
-0.229034 -0.142545 0.132738 -0.551226 -0.600648 -0.579112 
-0.230084 -0.135866 0.132175 -0.482935 -0.741752 -0.465380 
-0.233230 -0.129189 0.130479 -0.432540 -0.813862 -0.387992 
-0.237626 -0.122526 0.128107 -0.409228 -0.851623 -0.327523 
-0.241757 -0.115872 0.125868 -0.383699 -0.877518 -0.287643 
-0.246180 -0.109242 0.123481 -0.376354 -0.889287 -0.259859 
-0.250180 -0.102626 0.121317 -0.379241 -0.893597 -0.240130 
-0.254254 -0.096024 0.119113 -0.396457 -0.890459 -0.223392 
-0.258318 -0.089437 0.116925 -0.421810 -0.882675 -0.207274 
-0.262038 -0.082867 0.114908 -0.444903 -0.873455 -0.197837 
-0.265527 -0.076303 0.113023 -0.480578 -0.854148 -0.198684 
-0.268362 -0.069746 0.111498 -0.517041 -0.830565 -0.206960 
-0.271099 -0.063198 0.110016 -0.541851 -0.812560 -0.214813 
-0.273513 -0.056654 0.108719 -0.567268 -0.792891 -0.222556 
-0.274716 -0.050097 0.108071 -0.583221 -0.780039 -0.226698 
-0.275638 -0.043538 0.107572 -0.594175 -0.770698 -0.230177 
-0.275924 -0.036964 0.107424 -0.599868 -0.766444 -0.229612 
-0.276839 -0.030406 0.106927 -0.604501 -0.764384 -0.224268 
-0.278388 -0.023870 0.106098 -0.605984 -0.765537 -0.216185 
-0.281061 -0.017381 0.104657 -0.612603 -0.763895 -0.202934 
-0.283452 -0.010893 0.103362 -0.617373 -0.762858 -0.192087 
-0.285813 -0.004403 0.102092 -0.627838 -0.757329 -0.179642 
-0.287901 0.002078 0.100967 -0.644375 -0.745866 -0.168717 
-0.289766 0.008560 0.099955 -0.665914 -0.727261 -0.166282 
-0.291235 0.015050 0.099164 -0.687672 -0.706426 -0.167545 
-0.292730 0.021540 0.098361 -0.714288 -0.678166 -0.172868 
-0.294260 0.028014 0.097542 -0.742255 -0.641361 -0.194207 
-0.294963 0.034529 0.097160 -0.767194 -0.603662 -0.216807 
-0.295346 0.041057 0.096954 -0.786413 -0.572237 -0.232593 
-0.295227 0.047601 0.097027 -0.805588 -0.530120 -0.264576 
-0.294510 0.054183 0.097423 -0.824258 -0.484398 -0.293187 
-0.293410 0.060781 0.098019 -0.839936 -0.439874 -0.317831 
-0.292234 0.067394 0.098662 -0.853904 -0.396223 -0.337423 
-0.291121 0.074008 0.099266 -0.865018 -0.358207 -0.351328 
-0.289883 0.080635 0.099938 -0.875250 -0.323157 -0.359871 
-0.288295 0.087286 0.100806 -0.882016 -0.297823 -0.365168 
-0.286293 0.093969 0.101895 -0.889845 -0.277407 -0.362246 
-0.283702 0.100704 0.103304 -0.898890 -0.263280 -0.350256 
-0.280639 0.107476 0.104959 -0.909537 -0.245516 -0.335358 
-0.277007 0.114304 0.106930 -0.919976 -0.226115 -0.320182 
-0.274321 0.121075 0.108389 -0.929506 -0.202894 -0.307981 
-0.271617 0.127857 0.109862 -0.938815 -0.176923 -0.295507 
-0.269597 0.134599 0.110963 -0.946695 -0.150367 -0.284883 
-0.267095 0.141387 0.112319 -0.952905 -0.113262 -0.281323 
-0.264387 0.148204 0.113788 -0.957831 -0.078772 -0.276322 
-0.260030 0.155168 0.116148 -0.959934 -0.035701 -0.277946 
-0.254958 0.162200 0.118900 -0.959029 0.005750 -0.283252 
-0.249865 0.169262 0.121662 -0.955229 0.045301 -0.292377 
-0.244691 0.176346 0.124466 -0.951181 0.082189 -0.297491 
-0.239665 0.183447 0.127194 -0.947955 0.110773 -0.298513 
-0.234471 0.190568 0.130008 -0.943939 0.139243 -0.299319 
-0.228689 0.197774 0.133149 -0.939431 0.173701 -0.295462 
-0.222539 0.205042 0.136483 -0.932370 0.212405 -0.292526 
-0.214952 0.212468 0.140594 -0.916827 0.279711 -0.284939 
-0.206616 0.220002 0.145114 -0.903665 0.325614 -0.278146 
-0.196185 0.227778 0.150767 -0.898866 0.368036 -0.237885 
-0.183212 0.235858 0.157791 -0.911156 0.382022 -0.154451 
-0.169820 0.244039 0.165043 -0.935791 0.352421 -0.009678 
-0.158750 0.252020 0.171041 -0.945230 0.303348 0.120501 
-0.146704 0.260153 0.177569 -0.928582 0.250281 0.274034 
-0.141727 0.267539 0.180274 -0.903027 0.243935 0.353606 
-0.135197 0.275124 0.183815 -0.832356 0.207203 0.514053 
-0.131115 0.282458 0.186030 -0.758081 0.195630 0.622125 
-0.127901 0.289699 0.187768 -0.668375 0.150735 0.728391 
-0.124159 0.297017 0.189803 -0.616229 0.184044 0.765761 
-0.121818 0.304183 0.191072 -0.524984 0.150961 0.837617 
-0.120704 0.311204 0.191684 -0.462802 0.115807 0.878864 
-0.121969 0.317936 0.190996 -0.406035 0.050690 0.912450 
-0.123492 0.324622 0.190179 -0.361793 -0.000319 0.932258 
-0.125863 0.331195 0.188896 -0.328811 -0.022327 0.944133 
-0.129594 0.337584 0.186882 -0.285684 -0.056833 0.956637 
-0.137144 0.343450 0.182797 -0.244940 -0.125425 0.961392 
-0.148186 0.348807 0.176822 -0.137232 -0.325251 0.935618 
-0.193023 0.349495 0.152557 0.265121 -0.754112 0.600856 
-0.217278 0.352861 0.139422 0.243702 -0.785652 0.568649 
-0.238523 0.356561 0.127920 -0.017259 -0.838528 0.544587 
-0.247171 0.361980 0.123243 -0.127052 -0.832297 0.539575 
-0.253787 0.367657 0.119668 -0.253937 -0.818408 0.515485 
-0.258685 0.373562 0.117019 -0.344743 -0.791573 0.504545 
-0.262168 0.379657 0.115137 -0.421912 -0.757515 0.498158 
-0.265465 0.385769 0.113357 -0.479378 -0.728863 0.488831 
-0.268514 0.391901 0.111708 -0.530505 -0.701922 0.475257 
-0.271284 0.398074 0.110208 -0.596772 -0.662739 0.452371 
-0.273527 0.404313 0.109007 -0.638956 -0.634781 0.434499 
-0.275178 0.410636 0.108109 -0.673511 -0.603831 0.426345 
-0.276859 0.416946 0.107204 -0.701136 -0.585236 0.407315 
-0.278424 0.423276 0.106367 -0.726763 -0.562124 0.394755 
-0.278856 0.429775 0.106137 -0.761138 -0.522562 0.384185 
-0.279266 0.436289 0.105919 -0.787821 -0.489591 0.373681 
-0.276539 0.443319 0.107397 -0.812311 -0.452813 0.367577 
0.132403 -0.639074 0.319719 -0.083384 -0.994994 0.055099 
0.105735 -0.628063 0.305349 -0.064120 -0.991164 0.116118 
0.090865 -0.618743 0.297342 -0.077478 -0.996489 0.031747 
0.079797 -0.609986 0.291382 -0.114654 -0.992961 0.029742 
0.069655 -0.601387 0.285917 -0.107593 -0.994133 0.011176 
0.060206 -0.592924 0.280824 -0.161283 -0.986562 -0.026184 
0.053045 -0.584784 0.276970 -0.178361 -0.976264 -0.122870 
0.046404 -0.576734 0.273391 -0.211690 -0.960568 -0.180272 
0.041091 -0.568879 0.270536 -0.238311 -0.910925 -0.336787 
0.036307 -0.561108 0.267962 -0.278006 -0.861400 -0.425093 
0.033579 -0.553598 0.266493 -0.289819 -0.750627 -0.593771 
0.031962 -0.546225 0.265629 -0.277691 -0.687165 -0.671337 
0.032955 -0.539167 0.266164 -0.262706 -0.560897 -0.785099 
0.038339 -0.532587 0.269071 -0.210194 -0.531298 -0.820695 
0.058822 -0.527667 0.280121 -0.099055 -0.479937 -0.871694 
0.058424 -0.520397 0.279909 -0.054371 -0.544143 -0.837229 
0.055028 -0.512806 0.278089 -0.010064 -0.637564 -0.770332 
0.048834 -0.504929 0.274751 -0.086444 -0.747514 -0.658598 
0.041813 -0.496992 0.270972 -0.111544 -0.706634 -0.698732 
0.029334 -0.488539 0.264248 -0.217338 -0.667422 -0.712259 
0.021828 -0.480626 0.260202 -0.271092 -0.630431 -0.727369 
0.010610 -0.472375 0.254158 -0.273976 -0.601787 -0.750193 
0.007136 -0.464913 0.252290 -0.297021 -0.567195 -0.768159 
0.006727 -0.457743 0.252082 -0.345625 -0.546896 -0.762527 
0.010503 -0.450961 0.254116 -0.414686 -0.442391 -0.795190 
0.015414 -0.444262 0.256771 -0.414910 -0.393191 -0.820518 
0.020864 -0.437593 0.259714 -0.432686 -0.283174 -0.855918 
0.027301 -0.430983 0.263189 -0.442853 -0.150106 -0.883940 
0.039699 -0.424844 0.269876 -0.410109 -0.022538 -0.911759 
-0.172121 -0.346216 0.155723 -0.150129 -0.553175 -0.819426 
-0.179129 -0.338997 0.151952 -0.121007 -0.605600 -0.786514 
-0.183689 -0.331951 0.149489 -0.093105 -0.664060 -0.741860 
-0.191975 -0.324702 0.145028 -0.058776 -0.690740 -0.720710 
-0.202424 -0.317359 0.139403 -0.007704 -0.716633 -0.697409 
-0.212730 -0.310067 0.133846 0.004978 -0.737179 -0.675678 
-0.221922 -0.302873 0.128898 -0.014546 -0.767289 -0.641138 
-0.228943 -0.295837 0.125121 -0.019476 -0.777395 -0.628711 
-0.235137 -0.288859 0.121782 -0.035848 -0.775109 -0.630811 
-0.240174 -0.281964 0.119073 -0.052249 -0.767594 -0.638803 
-0.244931 -0.275107 0.116511 -0.072207 -0.751476 -0.655798 
-0.249689 -0.268257 0.113951 -0.090195 -0.740672 -0.665784 
-0.256975 -0.261326 0.110025 -0.126683 -0.722701 -0.679452 
-0.264127 -0.254432 0.106173 -0.143867 -0.707989 -0.691415 
-0.311596 -0.246030 0.080586 0.084802 -0.635272 -0.767618 
-0.324710 -0.239058 0.073516 -0.024617 -0.650174 -0.759385 
-0.333841 -0.232266 0.068600 -0.140367 -0.636374 -0.758501 
-0.340282 -0.225597 0.065129 -0.223567 -0.628045 -0.745371 
-0.343356 -0.219064 0.063478 -0.310365 -0.585687 -0.748761 
-0.345412 -0.212559 0.062376 -0.383069 -0.545186 -0.745674 
-0.346502 -0.206100 0.061792 -0.435862 -0.498228 -0.749529 
-0.347175 -0.199648 0.061436 -0.473754 -0.446217 -0.759243 
-0.346767 -0.193223 0.061660 -0.524105 -0.375317 -0.764494 
-0.344894 -0.186828 0.062668 -0.545158 -0.310578 -0.778682 
-0.341294 -0.180455 0.064615 -0.548557 -0.238786 -0.801291 
-0.334499 -0.174118 0.068280 -0.500578 -0.118587 -0.857530 
-0.240283 -0.169024 0.119087 -0.584461 -0.130339 -0.800886 
-0.232496 -0.162473 0.123289 -0.591202 -0.243079 -0.769022 
-0.226730 -0.155879 0.126396 -0.585272 -0.361667 -0.725709 
-0.222211 -0.149248 0.128838 -0.555864 -0.504986 -0.660308 
-0.221674 -0.142568 0.129136 -0.495379 -0.669474 -0.553538 
-0.222908 -0.135881 0.128472 -0.462440 -0.753715 -0.466974 
-0.226355 -0.129196 0.126617 -0.415865 -0.823244 -0.386427 
-0.231065 -0.122521 0.124079 -0.399531 -0.850246 -0.342721 
-0.235764 -0.115866 0.121556 -0.372122 -0.879672 -0.296151 
-0.240035 -0.109229 0.119256 -0.357846 -0.894958 -0.266452 
-0.244285 -0.102605 0.116965 -0.363181 -0.899650 -0.242345 
-0.248485 -0.096003 0.114708 -0.380954 -0.894912 -0.232396 
-0.252417 -0.089409 0.112593 -0.398698 -0.890738 -0.218238 
-0.256204 -0.082831 0.110559 -0.427135 -0.878107 -0.215603 
-0.259921 -0.076267 0.108553 -0.465347 -0.857238 -0.220447 
-0.262782 -0.069702 0.107016 -0.502665 -0.833676 -0.228722 
-0.265403 -0.063146 0.105607 -0.530790 -0.813338 -0.238209 
-0.267738 -0.056595 0.104350 -0.556927 -0.793565 -0.245126 
-0.268910 -0.050030 0.103726 -0.571929 -0.781431 -0.249525 
-0.270139 -0.043471 0.103065 -0.584677 -0.771441 -0.251061 
-0.270783 -0.036906 0.102721 -0.591959 -0.766628 -0.248726 
-0.272073 -0.030354 0.102028 -0.593591 -0.767765 -0.241218 
-0.273816 -0.023820 0.101094 -0.594130 -0.770388 -0.231327 
-0.276883 -0.017340 0.099445 -0.596851 -0.771613 -0.219962 
-0.279663 -0.010858 0.097949 -0.604228 -0.769816 -0.205653 
-0.282173 -0.004376 0.096605 -0.617303 -0.762741 -0.192779 
-0.284213 0.002105 0.095504 -0.632281 -0.752141 -0.185758 
-0.286010 0.008595 0.094540 -0.655555 -0.731914 -0.185873 
-0.287506 0.015093 0.093738 -0.679798 -0.706721 -0.196013 
-0.288877 0.021582 0.093006 -0.707483 -0.672012 -0.218789 
-0.290126 0.028073 0.092335 -0.734744 -0.634496 -0.239928 
-0.290666 0.034594 0.092051 -0.755466 -0.601801 -0.259053 
-0.290743 0.041138 0.092008 -0.774818 -0.558831 -0.295577 
-0.290136 0.047711 0.092340 -0.791564 -0.514226 -0.330152 
-0.289038 0.054317 0.092935 -0.804605 -0.472227 -0.360020 
-0.287581 0.060947 0.093728 -0.817139 -0.430790 -0.383019 
-0.286070 0.067582 0.094547 -0.830192 -0.391391 -0.396983 
-0.284799 0.074210 0.095237 -0.843883 -0.353591 -0.403528 
-0.283761 0.080831 0.095803 -0.851350 -0.330918 -0.407060 
-0.282084 0.087497 0.096714 -0.862865 -0.313712 -0.396293 
-0.280119 0.094185 0.097776 -0.873441 -0.298882 -0.384409 
-0.277209 0.100944 0.099346 -0.884509 -0.285227 -0.369175 
-0.273967 0.107732 0.101097 -0.896536 -0.268570 -0.352268 
-0.270713 0.114545 0.102856 -0.908762 -0.245253 -0.337643 
-0.268789 0.121262 0.103898 -0.921184 -0.218210 -0.322189 
-0.266784 0.128005 0.104980 -0.930499 -0.190387 -0.312929 
-0.265056 0.134724 0.105924 -0.938207 -0.163804 -0.304855 
-0.262697 0.141504 0.107193 -0.945290 -0.123083 -0.302123 
-0.260024 0.148322 0.108644 -0.949448 -0.085180 -0.302147 
-0.255989 0.155256 0.110818 -0.950827 -0.038489 -0.307321 
-0.251165 0.162280 0.113429 -0.949221 0.000628 -0.314609 
-0.246100 0.169335 0.116161 -0.945319 0.041220 -0.323531 
-0.240908 0.176426 0.118964 -0.941530 0.075063 -0.328461 
-0.235660 0.183541 0.121805 -0.939094 0.100392 -0.328670 
-0.230041 0.190709 0.124832 -0.936175 0.129218 -0.326925 
-0.224306 0.197908 0.127931 -0.933550 0.162926 -0.319278 
-0.217885 0.205205 0.131400 -0.927946 0.203743 -0.312097 
-0.210251 0.212639 0.135518 -0.913981 0.268695 -0.304043 
-0.202066 0.220157 0.139937 -0.904784 0.314277 -0.287395 
-0.191465 0.227958 0.145657 -0.911380 0.341322 -0.229972 
-0.179308 0.235955 0.152216 -0.936026 0.331641 -0.117767 
-0.165899 0.244133 0.159450 -0.954387 0.292216 0.061282 
-0.156337 0.251955 0.164611 -0.950854 0.245090 0.189224 
-0.149608 0.259501 0.168241 -0.930986 0.188146 0.312836 
-0.144979 0.266842 0.170747 -0.893094 0.121543 0.433141 
-0.141451 0.274071 0.172650 -0.838399 0.109369 0.533969 
-0.138896 0.281206 0.174034 -0.792564 0.050994 0.607652 
-0.136918 0.288288 0.175104 -0.738352 0.038024 0.673343 
-0.135961 0.295249 0.175628 -0.657298 -0.030289 0.753022 
-0.135673 0.302132 0.175785 -0.600215 -0.074644 0.796349 
-0.136339 0.308902 0.175431 -0.552023 -0.112156 0.826252 
-0.137490 0.315604 0.174817 -0.478211 -0.166517 0.862315 
-0.138967 0.322268 0.174024 -0.450934 -0.179566 0.874309 
-0.141473 0.328787 0.172673 -0.405524 -0.204590 0.890894 
-0.145467 0.335102 0.170527 -0.360808 -0.233463 0.902947 
-0.151865 0.341081 0.167077 -0.172111 -0.397561 0.901290 
-0.173123 0.345032 0.155620 0.040252 -0.656149 0.753559 
-0.203576 0.347636 0.139200 0.273919 -0.818787 0.504537 
-0.224589 0.351435 0.127874 0.154543 -0.854360 0.496171 
-0.239373 0.356025 0.119907 -0.027214 -0.873946 0.485261 
-0.247204 0.361551 0.115690 -0.137596 -0.871230 0.471197 
-0.253822 0.367227 0.112122 -0.253089 -0.851386 0.459446 
-0.258839 0.373110 0.109421 -0.351800 -0.816274 0.458187 
-0.262518 0.379167 0.107442 -0.425637 -0.788358 0.444211 
-0.265950 0.385255 0.105595 -0.493218 -0.753111 0.435386 
-0.268939 0.391396 0.103993 -0.558732 -0.717454 0.416026 
-0.271220 0.397628 0.102764 -0.607490 -0.686502 0.399590 
-0.273036 0.403930 0.101791 -0.650693 -0.653985 0.385878 
-0.274390 0.410299 0.101060 -0.688566 -0.624991 0.367779 
-0.275527 0.416690 0.100452 -0.714106 -0.606149 0.350194 
-0.276760 0.423067 0.099796 -0.740869 -0.574817 0.347417 
-0.277218 0.429565 0.099554 -0.767888 -0.547507 0.332542 
-0.277137 0.436155 0.099599 -0.805792 -0.508952 0.302767 
-0.274409 0.443185 0.101078 -0.832187 -0.472690 0.289878 
0.121498 -0.637109 0.305504 -0.097256 -0.995085 0.018652 
0.105725 -0.627609 0.297039 -0.136069 -0.990561 -0.016556 
0.094055 -0.618731 0.290777 -0.092597 -0.995436 0.023105 
0.083816 -0.610080 0.285289 -0.137347 -0.990462 -0.011002 
0.073901 -0.601511 0.279963 -0.134183 -0.987845 -0.078471 
0.065972 -0.593244 0.275714 -0.190376 -0.974550 -0.118363 
0.060598 -0.585328 0.272830 -0.180676 -0.972194 -0.148987 
0.055780 -0.577496 0.270256 -0.209946 -0.917071 -0.338977 
0.050718 -0.569664 0.267543 -0.235814 -0.851828 -0.467741 
0.049755 -0.562335 0.267024 -0.252335 -0.738157 -0.625662 
0.050016 -0.555162 0.267166 -0.202969 -0.537521 -0.818460 
0.058600 -0.548952 0.271785 -0.194313 -0.437297 -0.878075 
0.085911 -0.544865 0.286451 -0.105084 -0.371619 -0.922418 
0.087927 -0.537813 0.287541 -0.096326 -0.569439 -0.816371 
0.082247 -0.529898 0.284494 -0.050329 -0.640012 -0.766715 
0.077932 -0.522164 0.282179 -0.055724 -0.721917 -0.689733 
0.071328 -0.514196 0.278643 0.008257 -0.796354 -0.604775 
0.061565 -0.505922 0.273403 -0.029140 -0.828563 -0.559137 
0.052434 -0.497754 0.268503 -0.114865 -0.774893 -0.621569 
0.039386 -0.489225 0.261502 -0.202305 -0.727661 -0.655426 
0.026773 -0.480794 0.254742 -0.269501 -0.653721 -0.707121 
0.020786 -0.473048 0.251533 -0.281559 -0.630726 -0.723125 
0.019441 -0.465771 0.250813 -0.321208 -0.554710 -0.767543 
0.021341 -0.458802 0.251835 -0.365835 -0.485875 -0.793783 
0.026732 -0.452140 0.254731 -0.389125 -0.446206 -0.805905 
0.032131 -0.445464 0.257638 -0.396257 -0.336736 -0.854160 
0.037640 -0.438772 0.260600 -0.425324 -0.202601 -0.882073 
0.048077 -0.432476 0.266212 -0.424528 -0.044228 -0.904335 
-0.180035 -0.318473 0.143797 0.022120 -0.697623 -0.716124 
-0.193843 -0.310951 0.136389 0.018054 -0.728649 -0.684649 
-0.204927 -0.303622 0.130445 0.018389 -0.745923 -0.665778 
-0.215324 -0.296384 0.124870 0.003626 -0.757233 -0.653134 
-0.222238 -0.289347 0.121162 -0.011389 -0.754971 -0.655659 
-0.227644 -0.282422 0.118260 -0.031363 -0.755036 -0.654933 
-0.232911 -0.275511 0.115435 -0.046139 -0.742931 -0.667776 
-0.238026 -0.268640 0.112695 -0.071467 -0.733238 -0.676205 
-0.244680 -0.261715 0.109127 -0.108626 -0.711038 -0.694713 
-0.249734 -0.254888 0.106417 -0.138793 -0.695583 -0.704913 
-0.254117 -0.248098 0.104069 -0.169842 -0.671680 -0.721111 
-0.258053 -0.241346 0.101960 -0.197803 -0.647196 -0.736214 
-0.262421 -0.234602 0.099620 -0.248145 -0.608485 -0.753771 
-0.265898 -0.227894 0.097758 -0.289378 -0.574700 -0.765494 
-0.318496 -0.219723 0.069523 -0.060447 -0.519920 -0.852075 
-0.327261 -0.212990 0.064822 -0.212278 -0.522623 -0.825714 
-0.331008 -0.206426 0.062808 -0.255012 -0.456198 -0.852557 
-0.332287 -0.199936 0.062129 -0.338573 -0.415439 -0.844262 
-0.331520 -0.193496 0.062543 -0.357169 -0.334844 -0.871958 
-0.325597 -0.187153 0.065729 -0.379139 -0.245575 -0.892158 
-0.243778 -0.182189 0.109660 -0.591476 -0.083871 -0.801950 
-0.236807 -0.175670 0.113412 -0.594936 -0.069237 -0.800785 
-0.230158 -0.169120 0.116986 -0.567445 -0.165141 -0.806681 
-0.222989 -0.162553 0.120837 -0.584845 -0.299644 -0.753771 
-0.217885 -0.155931 0.123579 -0.563352 -0.422150 -0.710229 
-0.213681 -0.149286 0.125838 -0.518105 -0.568345 -0.639180 
-0.214089 -0.142599 0.125630 -0.480099 -0.690216 -0.541393 
-0.215866 -0.135896 0.124678 -0.432636 -0.770170 -0.468684 
-0.219568 -0.129205 0.122694 -0.410378 -0.817931 -0.403213 
-0.224556 -0.122521 0.120019 -0.376464 -0.860949 -0.342115 
-0.229384 -0.115861 0.117430 -0.356652 -0.883587 -0.303440 
-0.234047 -0.109214 0.114933 -0.335476 -0.902846 -0.268938 
-0.238554 -0.102591 0.112514 -0.346494 -0.903804 -0.251161 
-0.242871 -0.095975 0.110206 -0.359469 -0.902631 -0.236728 
-0.246625 -0.089381 0.108189 -0.382136 -0.894027 -0.233859 
-0.250469 -0.082794 0.106135 -0.411811 -0.880446 -0.235002 
-0.254310 -0.076231 0.104075 -0.451983 -0.858432 -0.242507 
-0.257192 -0.069660 0.102528 -0.487448 -0.835027 -0.255195 
-0.259830 -0.063102 0.101118 -0.517120 -0.814274 -0.263715 
-0.262054 -0.056546 0.099927 -0.544445 -0.794216 -0.269815 
-0.263830 -0.049987 0.098975 -0.562028 -0.781336 -0.271367 
-0.265144 -0.043422 0.098280 -0.575181 -0.771479 -0.272008 
-0.265815 -0.036847 0.097923 -0.579037 -0.769263 -0.270096 
-0.267239 -0.030297 0.097163 -0.579854 -0.771522 -0.261767 
-0.268943 -0.023762 0.096248 -0.579521 -0.775047 -0.251909 
-0.272212 -0.017282 0.094498 -0.580736 -0.778118 -0.239328 
-0.275310 -0.010808 0.092843 -0.586148 -0.777474 -0.227958 
-0.278226 -0.004342 0.091279 -0.596473 -0.772518 -0.217801 
-0.280364 0.002148 0.090137 -0.615933 -0.758564 -0.212625 
-0.282100 0.008637 0.089205 -0.640892 -0.735438 -0.219976 
-0.283065 0.015158 0.088693 -0.672404 -0.699774 -0.241223 
-0.284169 0.021664 0.088102 -0.700868 -0.661268 -0.267412 
-0.285203 0.028169 0.087556 -0.723384 -0.627278 -0.288513 
-0.285688 0.034698 0.087299 -0.745331 -0.583685 -0.322173 
-0.285613 0.041248 0.087342 -0.763737 -0.537418 -0.357611 
-0.284666 0.047847 0.087853 -0.776224 -0.497683 -0.387026 
-0.283052 0.054482 0.088723 -0.786968 -0.458667 -0.412682 
-0.281173 0.061141 0.089735 -0.797646 -0.425204 -0.427741 
-0.279510 0.067792 0.090637 -0.809072 -0.390215 -0.439472 
-0.277884 0.074443 0.091514 -0.821441 -0.366656 -0.436803 
-0.276498 0.081095 0.092262 -0.836658 -0.345151 -0.425292 
-0.274679 0.087776 0.093243 -0.848153 -0.330703 -0.413850 
-0.272553 0.094480 0.094387 -0.859035 -0.320437 -0.399225 
-0.269527 0.101260 0.096014 -0.872658 -0.308149 -0.378831 
-0.267002 0.108012 0.097374 -0.885599 -0.290304 -0.362544 
-0.264909 0.114747 0.098500 -0.898714 -0.265145 -0.349304 
-0.263550 0.121434 0.099235 -0.910606 -0.237541 -0.338192 
-0.262040 0.128138 0.100053 -0.920594 -0.206255 -0.331613 
-0.260467 0.134858 0.100903 -0.927767 -0.174251 -0.329978 
-0.258223 0.141630 0.102114 -0.935873 -0.131490 -0.326883 
-0.255522 0.148449 0.103561 -0.938674 -0.088231 -0.333329 
-0.251787 0.155366 0.105577 -0.940261 -0.042924 -0.337739 
-0.247225 0.162359 0.108033 -0.938494 -0.003174 -0.345280 
-0.241962 0.169436 0.110863 -0.933942 0.035284 -0.355678 
-0.236566 0.176545 0.113761 -0.931561 0.065403 -0.357653 
-0.231456 0.183652 0.116506 -0.930154 0.090615 -0.355814 
-0.226028 0.190804 0.119427 -0.928335 0.119484 -0.352020 
-0.220253 0.198010 0.122532 -0.925199 0.144764 -0.350785 
-0.213461 0.205346 0.126186 -0.922207 0.187250 -0.338335 
-0.205992 0.212765 0.130196 -0.913584 0.247704 -0.322502 
-0.196836 0.220382 0.135119 -0.912555 0.296868 -0.281269 
-0.186566 0.228151 0.140640 -0.929176 0.309494 -0.202100 
-0.174651 0.236126 0.147043 -0.960966 0.271261 -0.054429 
-0.164692 0.243947 0.152391 -0.969161 0.230764 0.086461 
-0.155910 0.251677 0.157118 -0.953714 0.174943 0.244588 
-0.151459 0.258965 0.159509 -0.921407 0.117132 0.370523 
-0.148617 0.266101 0.161044 -0.866195 0.044149 0.497752 
-0.146423 0.273168 0.162222 -0.840280 0.002448 0.542148 
-0.144797 0.280174 0.163098 -0.785461 -0.032915 0.618036 
-0.143259 0.287188 0.163931 -0.704768 -0.084965 0.704331 
-0.142984 0.294050 0.164080 -0.666909 -0.093548 0.739243 
-0.143080 0.300865 0.164037 -0.611184 -0.141066 0.778816 
-0.143784 0.307613 0.163663 -0.549919 -0.201618 0.810518 
-0.144970 0.314293 0.163032 -0.509992 -0.224658 0.830324 
-0.146341 0.320940 0.162300 -0.467250 -0.260121 0.844993 
-0.149264 0.327391 0.160733 -0.401723 -0.313288 0.860506 
-0.154138 0.333569 0.158120 -0.314720 -0.431856 0.845252 
-0.161580 0.339389 0.154123 -0.188602 -0.535309 0.823332 
-0.180161 0.343673 0.144149 0.101306 -0.752639 0.650593 
-0.206467 0.346834 0.130031 0.254998 -0.852430 0.456444 
-0.225612 0.350884 0.119749 0.125808 -0.891343 0.435524 
-0.238605 0.355717 0.112781 -0.035012 -0.906992 0.419691 
-0.246430 0.361242 0.108583 -0.154104 -0.900133 0.407449 
-0.253172 0.366897 0.104961 -0.269181 -0.876767 0.398524 
-0.258253 0.372764 0.102238 -0.361886 -0.847823 0.387601 
-0.262104 0.378799 0.100180 -0.434890 -0.817793 0.376943 
-0.265328 0.384909 0.098454 -0.513536 -0.777372 0.363280 
-0.267836 0.391118 0.097108 -0.565810 -0.743407 0.356663 
-0.269732 0.397405 0.096090 -0.619791 -0.705608 0.343479 
-0.271369 0.403735 0.095215 -0.662973 -0.676268 0.321135 
-0.272500 0.410135 0.094611 -0.696318 -0.648160 0.308270 
-0.273848 0.416496 0.093899 -0.727845 -0.618987 0.295118 
-0.274816 0.422911 0.093376 -0.757201 -0.591997 0.276020 
-0.275458 0.429379 0.093042 -0.785266 -0.562130 0.259551 
-0.275449 0.435946 0.093050 -0.826330 -0.510088 0.238725 
-0.273164 0.442907 0.094281 -0.851492 -0.472745 0.226880 
0.137227 -0.646194 0.305575 -0.078337 -0.994114 -0.074849 
0.120447 -0.636504 0.296606 -0.094640 -0.989924 -0.105325 
0.107392 -0.627386 0.289635 -0.142434 -0.989745 -0.011014 
0.098031 -0.618818 0.284637 -0.111529 -0.992945 -0.040312 
0.090134 -0.610481 0.280413 -0.131985 -0.984967 -0.111450 
0.080616 -0.601965 0.275337 -0.149853 -0.978489 -0.141794 
0.073739 -0.593818 0.271658 -0.163870 -0.955631 -0.244779 
0.070258 -0.586135 0.269804 -0.205855 -0.896672 -0.391925 
0.068053 -0.578618 0.268627 -0.218494 -0.882850 -0.415737 
0.072651 -0.571949 0.271093 -0.162454 -0.522577 -0.836973 
0.088225 -0.566578 0.279425 -0.115483 -0.365726 -0.923530 
0.111660 -0.562079 0.291960 -0.119188 -0.344332 -0.931253 
